ply
format ascii 1.0
element vertex 690
property float x
property float y
property float z
property uchar red
property uchar green
property uchar blue
end_header
-4.1397670354962885 -0.18696280518954744 -2.5081991250606226 42 37 34
-3.057086439363881 0.6741206551343522 -2.042481174097267 148 147 152
-3.210304705191142 -0.24466164768248463 -2.2217738472056703 83 69 56
-2.9924014607103495 -0.6565168725110009 -2.2054176958926632 85 81 72
-3.4250717831555266 -0.9789608095116896 -2.3836178500188008 99 97 100
-3.604705667819221 0.9605392883053571 -2.1625291138646094 134 134 138
-2.968697649177411 -0.5357929407145725 -2.1803944755915037 63 57 41
-3.9965764248323534 -0.04256790614451806 -2.445550655711727 142 142 144
-5.92166860132638 -1.373283866186248 -3.2420358691577333 128 127 125
-3.5564895899977897 0.021539264083673525 -1.8590639788220937 22 114 81
-3.936337133787816 1.021397189041281 -2.2773969580909657 142 141 146
-4.048417651314543 -0.6570961795953619 -2.5458462687824386 98 93 90
-3.6629195026432586 -0.6850834094254749 -2.4210891914010353 147 151 152
-2.8419257599738317 0.08216047790422504 -2.0526151053462387 143 147 152
-2.614425821499491 -0.6554251479934832 -2.071825781286528 133 140 150
-2.8587125559449427 0.0887484180226786 -2.062071366430647 92 83 78
-4.5157461655857345 0.7767844003706648 -2.499286814117335 148 148 148
-4.189156322002095 1.1884586706580837 -2.3302810654221195 98 96 94
-3.3459128691540356 -0.2934792638441723 -2.267949242831703 69 62 51
-2.7987937895309756 -0.38107569064431773 -2.1010364168829536 126 127 131
-4.088395154271172 0.7768604476724261 -2.359032060991204 145 150 156
-2.869083492929014 0.000752339392263759 -2.075940425283386 57 50 44
-4.417598457922659 -0.26079162212487084 -2.6123608067709223 54 44 42
-3.4428359909549946 -0.6015635698716839 -2.344641519119041 60 52 49
-3.4772297614080703 0.4648974023810672 -1.926146359002579 45 18 0
-3.4587528588241905 0.9065630724336744 -2.1350156898262567 105 100 104
-2.8005741596606573 0.18150064247299363 -2.0317030906479494 159 162 169
-3.9758040045761325 -0.19156935952331505 -2.460366233540022 85 78 72
-4.115868962598455 0.9852770110606532 -2.3374415904691124 148 146 147
-5.967094036660885 0.1763384178817491 -3.034105773471168 109 104 101
-4.144973139089923 1.293358306593472 -2.3099678457740374 105 105 103
-2.5297955584521588 -0.15795488432633004 -1.9852216330910566 151 159 166
-3.1654507046260845 -0.6779670500064868 -2.25959989677333 86 84 87
-3.283186433717121 -0.3608913837300029 -1.7904985812572596 171 152 72
-3.3445997109391232 0.903275137521961 -2.1035751499919244 148 145 151
-3.97127693076776 -0.42234080608181984 -2.4877547437374776 53 43 41
-2.944138114317042 -0.3758679027877362 -2.1404788747264347 120 125 129
-2.6471477107915673 0.4689629181395215 -1.9398299970738375 86 78 74
-4.494588865117715 -0.547502411343799 -2.6733622051318244 88 77 68
-3.1890098180584663 0.6141512604935822 -2.097819029916821 129 130 132
-3.5494845158225368 0.9082782166133536 -2.172982306305096 143 144 148
-3.809921264073991 -0.14685157572004837 -2.4032646999696 83 79 78
-4.350159469482979 -0.32297068775930743 -2.605020227371873 129 127 128
-3.3229452729134508 -0.462217689354567 -2.2893961594489505 64 57 47
-3.0215003001756293 -0.5841939203342739 -2.195719386337189 102 103 102
-2.8819838795527444 -0.08869580168921551 -2.0931366881900146 62 58 55
-3.1923586040213743 -0.6781220980805603 -2.2690774043715347 124 121 122
-2.908552648013352 0.16463314979139346 -2.0677936336035003 140 141 144
-3.216132364466394 0.1615865844043743 -1.9594934873323995 143 114 39
-3.413392364769218 0.5702395569608905 -1.9166383469470718 120 76 13
-2.7419259536327147 -2.2780306741692615e-05 -2.0295195492996556 146 145 141
-2.919813450403824 -0.3541426081796754 -2.1334182848726964 125 124 118
-4.526602310350557 -0.921320357494987 -2.726510918613849 103 98 92
-3.190688771342443 0.3971228462884864 -2.00662692202906 133 107 30
-4.4649430930243446 -0.9073384026488156 -2.698959704998882 144 149 153
-5.364201481788942 -0.8046487699558218 -2.9835258417099157 110 107 106
-3.6723288358790533 0.923957943390589 -2.22043408225472 118 116 117
-2.4674429343895494 -0.615409691641313 -2.020664471407068 133 140 151
-4.197283081887315 1.1627046678967523 -2.3425818509184095 132 131 136
-3.876622782767537 -0.1932950271414823 -2.424019356917555 150 157 165
-5.104690945982125 -1.2793161303925458 -2.974189577382144 84 83 77
-3.793541383814619 1.0091669958254763 -2.233698363616942 141 145 147
-2.6329740752363877 0.4283146858507884 -1.944512301306696 146 150 162
-4.030738628599129 -0.29492098108612 -2.485001661456332 63 50 42
-2.948952070116151 0.3481219311184187 -2.0613568961059787 141 140 145
-2.8269885399693955 1.3837157605835133 -1.8655009829129654 87 79 72
-3.7107472861375403 1.1327813586485902 -2.1922205090185805 120 116 113
-2.7677209382568124 -0.27959761383390774 -2.0836841457611155 33 29 26
-2.6081951689310467 -0.26424868036099924 -2.0215202772385537 86 86 81
-3.2251468925335307 0.2858012223919876 -1.9623117133956864 96 52 15
-3.423281695812921 1.3434842736888117 -2.064836866814788 72 73 75
-3.5916101607627926 1.0131105804157967 -2.1609633875713756 130 127 123
-2.489225910370324 0.4342510077220697 -1.8894358064180576 144 145 147
-3.215000240120445 0.8692752877008673 -2.065604215818695 113 109 110
-4.309683914487103 -0.8302224189223375 -2.6453537685427846 134 135 137
-3.321825837454895 0.6346974800987252 -2.1394999795419296 61 52 47
-3.2456228492949006 -0.07067173291957518 -1.769800414357544 160 138 68
-4.126623236707904 0.9686402880345637 -2.349408862498138 138 139 143
-3.283737224982174 0.3847262129538914 -1.9534548151907838 121 69 13
-3.2287383386923008 -0.06730163011638363 -1.7742768961268622 113 63 10
-3.0327090534207954 -0.659677453863791 -2.2189432441234174 78 70 66
-3.0346788490188334 0.7200369612262822 -2.036656223943052 151 151 149
-3.6401991294996887 -0.3038959502956263 -2.3663569945866882 136 141 148
-4.071936139514193 1.4462128253454924 -2.26128607237124 69 64 61
-3.3895230720375107 0.5306317538907217 -1.9257816716459246 147 128 57
-3.1077688555634007 -0.7351036395032534 -2.2369470077417897 125 125 127
-3.323419134742917 0.9082080056021413 -2.091964131816638 141 142 146
-4.787329931591319 -1.0629681227975627 -2.8469450807396286 102 94 91
-3.5804190683149644 -0.8510160983910963 -2.422499965856319 128 128 130
-3.6358025007997385 0.999268294519353 -2.179589422572177 95 85 79
-4.429987654641192 0.7734187428731313 -2.4724845971524156 121 126 124
-2.676114478427841 -0.10338148733458732 -2.0236905617776593 57 41 28
-3.1541435741389985 0.5251049672604535 -2.0988328350576486 133 133 129
-2.8479988040107225 -0.12777172129023814 -2.0851188035404875 64 54 45
-3.8185840016188757 0.24885347827235416 -2.3478039987287813 129 129 130
-3.6356400246695126 0.49481512084946055 -1.7849490755882644 161 143 81
-2.8890041661112718 0.042834715918847126 -2.0800097547288425 156 166 183
-2.9534971529444554 0.2900822973070064 -2.066467639106217 57 53 52
-4.412439139788581 1.4653416963520403 -2.3697262055631985 121 125 126
-3.8661764640408447 -0.9222989753927382 -2.528020243092644 95 87 83
-4.04632333975271 0.5086951143975609 -2.3844180245876476 46 41 36
-3.3502390688017183 -0.3767782505780935 -2.2754142237463366 125 124 130
-4.248842628945937 -1.2592193681420834 -2.6847235616347374 83 72 66
-2.974816288368874 0.20897124196403472 -2.0860702013012706 56 51 47
-4.860279360440672 -1.0123979076468541 -2.839511591847866 137 138 139
-3.1989909040049733 0.855046780640047 -2.063819227906948 85 81 78
-5.1006613966435195 -0.6306479508278651 -2.87054275573594 117 116 114
-2.8894876600596566 0.39814685385121246 -2.0324218383959027 27 21 21
-3.154687802648224 0.09668514196345641 -1.9602623819860756 132 107 41
-3.1803163988611853 0.7447681010837974 -2.0704283206016214 139 140 144
-2.8842510977312874 0.922370295669531 -1.950631813977164 66 61 58
-3.5126800095418256 1.1365187127585077 -2.121405666584286 144 152 160
-3.981548496038605 -0.539233805337091 -2.504710159558961 141 138 133
-3.4113949577655687 0.8634311907250043 -2.1308415454988867 132 139 152
-4.191133383172696 -0.4731881582682089 -2.567179672971597 26 17 12
-3.3445432592904516 0.6738583519712188 -2.1408867959481457 69 58 54
-4.0019829603946615 0.969765531885374 -2.302247195777765 119 119 118
-4.574282155547096 0.032861628484132564 -2.6234251587896695 77 73 71
-3.1806119579782846 0.35383728107835927 -1.9947705303048442 105 66 8
-3.466493176361033 0.06192788059345448 -1.8822054846366287 126 75 4
-2.736769739875731 -0.6604448193571125 -2.121124617654615 94 89 84
-4.2100660372792 -0.339060382623636 -2.536443919963699 156 158 162
-5.000854073851984 1.1582594634032977 -2.6060329777447064 81 80 76
-4.106494583564566 -0.41314134660024393 -2.5341056883716533 45 34 27
-3.0852436980717286 -0.7960210460899545 -2.2494676776479188 96 91 88
-3.4403884843437447 0.5683447010988739 -1.906586817850426 147 126 57
-3.159648402697811 0.5956215288516171 -2.090804587167995 85 68 65
-3.4104554326033854 0.7234153497599032 -2.152071503343761 138 138 140
-2.573965727255544 -0.17811182251965912 -2.0012883288543284 121 126 129
-4.228290247840422 -0.19771940340856003 -2.546764695957301 161 168 178
-3.190378819440883 -0.2591781293609058 -1.7270909583342817 162 145 71
-4.220480024147854 -0.2898378259513982 -2.5480822168923267 81 64 52
-4.314373491437882 -0.8309831646893152 -2.649953657447648 134 135 137
-3.7592227214059797 -0.7240364920384089 -2.4601468074807973 125 128 125
-2.783719022906954 -0.07259816023221302 -2.063678471043817 52 44 40
-5.0440806829263245 1.3633419180458557 -2.5918110059273465 136 137 139
-4.359517540203553 1.4550128160260019 -2.356799621168498 131 136 136
-2.27860035908646 -1.554732123547391 -2.1034950180351215 141 145 149
-3.8798199423950526 0.8125426152741435 -2.288332509908454 137 135 136
-2.6769374840540734 0.25648075050135544 -1.974325196301784 153 153 155
-4.301270228556938 -0.5257909081390534 -2.6085471856520845 118 125 119
-3.5057634548099443 -0.39149753699418305 -2.3253213631817715 92 83 74
-2.439485760229497 0.1644139414829079 -1.9140872084047877 155 165 172
-2.525427021965148 -0.656234397501689 -2.052321761350278 116 123 129
-3.2046295088925283 -0.22244935568720045 -2.2155638477477098 86 84 70
-2.52800343468085 0.010041258986962705 -1.9617939569465614 82 71 67
-3.9024746197631144 0.4752435004292323 -1.6936360795116903 94 82 68
-2.621501567812293 -0.5765131544292045 -2.079765275056664 131 140 145
-3.9671342727957564 0.6194664273668984 -2.34044143527463 157 159 165
-3.3346336165605535 0.5171807469318278 -1.9452860341853946 111 67 13
-4.465984948353392 -0.41790561723694225 -2.6405445960256166 144 142 143
-4.3769024887394705 -0.11853315173304713 -2.5719996966716647 117 113 112
-2.784506212624606 -0.20481738837454674 -2.0791421115776654 135 142 150
-3.6373822325026186 1.4108794304184777 -2.112467244376182 95 82 74
-3.307218817492787 0.3938842337191187 -1.9497020786730748 151 127 53
-3.305340128050705 -0.7125548640146704 -2.311102049354406 130 130 132
-3.133518518326827 -0.6020797448897658 -2.235209673081635 112 111 116
-3.176756451598408 0.2774925195416433 -1.9788194573516902 160 137 67
-3.2415644936417563 0.4633648884099893 -1.9873770144466991 144 120 35
-3.6663059087250653 1.1725575907270391 -2.1692321453507923 139 142 148
-3.397571159009702 -1.138487994506681 -2.4027821642930514 55 51 43
-3.408421921035302 0.5897497697590417 -1.9261908948512427 151 132 73
-4.387167260717315 -1.1846004918738795 -2.7102961978316826 84 77 76
-4.54212902541397 0.22986997735699807 -2.5787809621762525 104 96 92
-3.5057840971033882 0.4634730926557976 -1.8381268312477976 146 120 49
-3.1741290986960955 -0.08575600387905453 -1.7968656474293936 137 112 30
-4.206280594512889 0.507118168418539 -2.433301907502007 141 144 150
-2.9728007106472067 0.8626269061022096 -1.9882733017017096 132 144 155
-4.324630344062027 -0.8957545194423621 -2.6722398451718745 106 98 95
-3.3573354114969525 -1.0157741634701845 -2.379408292469727 151 159 167
-4.112956804608473 -0.9412068932565584 -2.604865768080709 97 93 89
-3.0561229621552655 0.894794683025302 -2.020021482055471 143 143 149
-4.487995225114223 -0.330020793424326 -2.6452216008254963 79 63 49
-6.543744161285271 -0.903358218485582 -3.3709786622295885 110 108 109
-6.102099823580861 1.0115138003429276 -2.957735528833485 125 121 118
-2.945366202951996 -0.6500448026242556 -2.185765171773082 91 92 77
-3.8798001925877337 -0.6271874407838263 -2.4897653534715976 146 151 154
-3.220457515023524 -0.06352457873659335 -1.7791541634646775 140 121 45
-3.1477730151828984 0.6980732701139208 -2.069845261362112 143 143 142
-2.65060438394674 0.6629764395096743 -1.912262964795293 127 127 127
-3.949071120347283 -0.7576560085340196 -2.517827013606879 89 84 78
-4.1085563270696 -0.5544771632425922 -2.5442620769577107 93 84 77
-4.093868236361044 -0.4784384393173971 -2.520890983342397 141 140 145
-2.8361826710634235 -0.5004586203072918 -2.1318633709071855 121 121 134
-3.2198838115855932 -0.01802339721820862 -1.7939760542947485 160 144 79
-2.579126418462191 0.3964666655429987 -1.9233771587752608 147 148 152
-3.0613347769159667 -0.8191076143852996 -2.243400382642191 72 65 55
-3.054801808248196 0.23928840732895781 -2.1057132907091924 121 124 128
-2.8522074759995513 0.28804605260865174 -2.0389851587613776 145 150 156
-3.2144560097490067 0.583390110868411 -2.117426063806532 131 129 134
-2.579362293058103 0.27081062427210956 -1.9424867124095373 137 141 144
-3.34751372027372 -0.7529318935338063 -2.3277350330124507 66 53 51
-4.3485784551707685 0.17840544520579724 -2.5279913008198798 62 53 48
-3.9176957569640387 -0.7438039150129603 -2.502025266795343 70 60 56
-4.074667067016936 0.8347647442986513 -2.3454285902709504 85 88 80
-5.013650913096663 -1.082405695750576 -2.901788829108604 136 136 138
-3.2146297652942457 0.24788299329920951 -1.9622439756055634 96 51 14
-3.3165654882693203 0.25588171746497923 -1.851287396332974 93 43 13
-3.5902899834664797 -0.8198390870993588 -2.418003793300607 70 59 55
-4.4192158882398624 -0.47377547410252 -2.646678988592548 143 142 147
-4.614596504419487 -0.9471029266828825 -2.7460359259696907 136 141 144
-4.214879566676819 -0.7507850454754229 -2.603639650516032 84 73 69
-2.4610554345949467 -0.004810620389240924 -1.9413248497548625 85 70 64
-3.2598928443398303 0.5510473742859912 -2.1306393599465903 139 145 159
-2.9620003048418235 0.5361259761998094 -2.0379224018431774 126 131 134
-4.361185080421252 -0.14765657441404717 -2.5706764089916416 130 129 128
-3.0069558438791395 1.018415978826519 -1.9683573991180823 150 153 157
-3.882502924686905 0.29810584644141286 -2.360241940665191 125 112 104
-2.703738752855895 1.706632599392519 -1.7757817386122914 61 62 64
-3.287417997194134 0.2421905888605582 -1.8761362940382738 102 54 5
-2.8442473530708154 0.739139995893212 -1.96446550089381 149 150 152
-3.758300685473118 -1.229511954145212 -2.5258446634071787 134 133 138
-4.042102584493792 -0.23427662471661542 -2.4832533405550508 81 68 59
-3.657937362754685 0.7699179784046266 -2.221672522804102 69 66 57
-2.650188779988138 0.5455049674870099 -1.933716856412886 70 51 34
-3.9335806891389193 0.5000657213306776 -2.3430429424646437 131 129 130
-2.967598092973624 0.1753221317910551 -2.061095038653246 150 153 158
-3.322781430864483 0.2452548252649236 -1.8410022296517936 91 46 12
-3.157300938568555 0.4848704863629553 -2.1012378068881272 88 76 67
-2.811447101839454 1.1200876677321199 -1.8962092883155177 131 130 128
-4.0094647317693175 0.4241238204785194 -1.595075319261364 42 31 18
-3.0674289030473814 -0.2755082846933433 -2.181996602749635 91 95 89
-3.334684769283106 -1.1631464100828044 -2.3814221291740996 135 141 141
-2.995967299184393 0.2353898666217366 -2.081582040112901 145 153 160
-5.4746830295016125 -1.0555625606611676 -3.0527629340535576 83 78 75
-3.880312453046477 -0.887021081340477 -2.5113389536452058 111 106 107
-3.343205600404926 -0.5390679106924463 -2.29501215558988 139 139 139
-3.930601901972652 0.44665052322780174 -1.676549485181714 96 82 71
-3.329542786995966 0.2715975865965966 -1.8503814353674028 96 47 5
-4.238804679659038 0.5904295412327321 -2.4327353853150377 138 136 141
-3.615266013655768 0.4657298229339948 -2.25342001586381 53 40 32
-2.748595377240074 -0.39999813057477507 -2.0917744317980276 103 101 102
-5.331703961635599 -0.8727112493926106 -2.9782385288651287 102 86 81
-3.77981389164714 -1.0543541770321943 -2.504598209494298 126 125 130
-3.224123050649762 0.004495774888139883 -1.8022400833873067 162 144 72
-4.285595366663969 0.02700139590124538 -2.525501715061468 146 144 149
-2.8029533759315504 -0.40625381934315424 -2.1075866541605515 93 88 85
-3.4933082401979134 0.7681146084416766 -2.165769527523863 135 134 139
-3.3922960379031553 -0.807479568095399 -2.3583633240042485 50 40 38
-4.1182940882700185 -0.4725595202667769 -2.5344787041059242 143 142 146
-3.4161315209021335 0.5421932465455215 -1.9172807309935365 109 66 3
-4.13374102329005 -0.11251823180496201 -2.4946428659810413 130 128 131
-3.1298832119054136 -0.5211748512673647 -2.2393055730919027 28 18 16
-4.71947666448492 -0.17650765817145542 -2.6876731790122674 99 90 85
-2.8304084316551648 0.40690075610200976 -2.0131490973140247 139 148 147
-3.3097695430605345 -0.956238220985826 -2.349679353675363 138 157 171
-3.2208147424411813 -1.1041350056267887 -2.3344578718443496 128 130 125
-2.427895711325054 0.3836337665595683 -1.8810800163237087 40 29 20
-2.9150974630551043 -0.37177906515849857 -2.1423102101571367 119 118 116
-2.863285275245397 0.7357899531252851 -1.966838936995552 144 152 160
-3.27235333991437 0.21217995412808774 -1.8709449547633217 127 106 22
-3.775850635334389 -0.980839060793378 -2.506267029527136 102 93 85
-4.450061817370443 0.7755666051376169 -2.4707508753529908 145 143 144
-2.349210404212237 0.7417858438860604 -1.8040644359578246 122 123 125
-3.1486545342657974 0.8023351122988293 -2.0517313435870324 147 148 152
-4.353074655174709 1.4036311209521464 -2.3635384633542516 129 129 129
-3.58337240237741 0.954377160109495 -2.167437666742841 59 47 39
-4.172029985935065 0.7308872450589545 -2.4036992142371676 77 63 47
-4.555810500582548 -1.4936507500024923 -2.8322786368220494 133 131 134
-3.5849948922146697 0.6626239674779233 -1.8429231276748033 126 80 20
-2.7161437896686866 -0.9041691188294579 -2.152086641079441 113 118 122
-3.396051315330867 -0.9026816870756411 -2.363555892502141 130 131 133
-4.079491910943681 0.3602990249490793 -2.4255905637506965 68 56 39
-3.609364196757962 0.48629645218872813 -1.7888824958991585 163 159 115
-4.072224448958394 0.8992621491137057 -2.3370069009814975 130 125 128
-2.6692426817361934 -0.01571235904184388 -2.0141504394245247 129 134 140
-3.103624887006912 0.4889614215401136 -2.083089038536126 141 146 152
-3.033885714588779 -0.5866891536483598 -2.2135516934075876 102 103 102
-3.3208290769143605 0.789683479771504 -2.112876914667635 136 134 132
-3.227153453308611 0.11324720714419066 -1.8525660932207313 95 53 4
-4.3535765285375 -0.3667326634715459 -2.603111285701852 77 70 65
-3.4747382302024254 0.6131016912614325 -1.8909260708572233 141 117 57
-3.2920448582524533 0.4354615856405395 -1.953630775314396 159 142 87
-4.425338300161097 -1.2592273068091857 -2.7394131624333844 87 88 85
-4.16127683678605 0.30587966767853003 -2.4515319919849974 51 41 39
-3.2811759553476176 1.5686236026546465 -1.9741164602244834 61 62 54
-3.1308134310727462 0.3935402880054236 -2.10228950315202 119 115 116
-2.431471629177542 0.892379945470555 -1.8029803513425864 96 93 90
-3.481723808793215 0.4304035839442587 -1.8289431898618316 72 35 23
-3.512247938858439 -0.372673357448673 -2.3316710805142233 149 147 148
-4.172700589448095 -0.12483151909134657 -2.5157434320444465 101 92 85
-4.553768349421335 0.028874250218156743 -2.6097383560749403 90 76 66
-3.3859851652229387 -0.8503885719748672 -2.351956600050243 137 136 140
-3.9392174734100194 0.7856523674322078 -2.3064960819889064 132 130 131
-2.9886319291134544 -0.2634750096030317 -2.1488819287788097 108 108 110
-3.104767682035815 0.048985366924944755 -1.9878229269065986 97 53 0
-3.317679111762598 -0.2156300062343263 -2.251052977140586 33 24 19
-3.403669513079691 -0.3930200061710386 -2.3037924510670638 117 110 103
-4.134835658944128 0.5431348102085288 -2.40143709079458 116 122 122
-2.7158072975225624 0.22013527454271076 -1.996007399144301 143 147 148
-4.011706224698981 -0.22244397162788798 -2.472960334485773 144 144 146
-2.986572346434315 -0.05752854299053201 -2.1125773439372373 86 82 81
-3.368554316447285 -0.75509035174342 -2.33234373544984 102 102 102
-3.6904036888665077 0.7064799222509466 -1.8101716415378886 130 82 13
-3.2929401121356983 -0.5173219984749132 -2.2856897119441557 44 35 28
-3.92089307467487 1.0986873113492122 -2.262225476141852 86 80 80
-2.549504881472536 0.12048026826712417 -1.9541144650756646 141 145 148
-3.1647753693817857 0.0943926792569284 -1.9572711362562647 140 118 50
-3.223470736721703 0.12399166637393842 -1.966430047300194 48 14 2
-5.113406132514333 1.1467179860586503 -2.650770545741053 67 64 55
-3.1879544817226533 1.8412653475864031 -1.9087336848024048 148 147 152
-3.0433451608727817 0.9508727606218186 -1.9957742525426638 147 156 153
-3.543345564360658 -0.9159768688787764 -2.4176814294568088 131 129 130
-2.82326390814735 0.6936876357362324 -1.9671829040516682 123 121 124
-3.536312653044945 -0.6944835174939216 -2.3829082027335833 135 136 138
-3.803921880802213 -0.9458644340744647 -2.4937927214251174 130 129 127
-2.9864873338846025 -0.06094305065508192 -2.1146793673768136 62 59 53
-3.511929974217149 0.477489844639305 -1.8436282482293997 151 133 66
-4.0483465502250375 0.391197582533942 -2.3988135062964164 150 149 147
-2.690112024733627 -0.05107696176590862 -2.023183470908368 134 139 145
-2.4858745481943076 0.5122825412195494 -1.8796197941914923 152 166 182
-3.8076657163760155 -0.44448349322924885 -2.444054770835793 148 151 156
-3.7884815121346516 -0.43221015493762954 -2.4349143437828635 148 148 150
-3.033021615080085 0.28836781593578487 -2.0829997178545323 95 87 78
-3.416755328534585 1.0755812351826652 -2.0961219009310175 90 81 79
-3.1385412106407076 -0.07896958962044515 -2.1723796417949863 77 73 64
-2.8475942085603716 0.8393487150610407 -1.9528863279318955 124 126 125
-4.007143672440135 0.4442774911079215 -1.602774755288201 123 119 116
-2.752814785321579 0.1081898248350875 -2.0200531694558674 140 140 146
-5.0154203100314465 -0.14767019942483237 -2.7931838181176034 134 134 136
-4.27959274818478 -0.4465573350108269 -2.594812712672791 138 137 135
-2.740867848836809 -0.960087304605762 -2.1627495185610064 63 55 52
-2.6849880994391335 0.5222472420953392 -1.9501735721798779 135 150 162
-2.447041698792187 -0.7291629499749746 -2.038774634910215 33 27 27
-3.4556786444665653 -1.2196419465472836 -2.436891807685121 134 135 139
-3.193380008144854 0.7813411418327116 -2.063668604646758 104 103 104
-2.855133531120981 0.1520309264148899 -2.0473548363686445 119 110 112
-3.420011814968834 0.41814254472530354 -1.9037796039783825 144 116 33
-3.4741652683783233 -0.9111002180214183 -2.390037724682763 133 134 137
-3.6545928579865485 0.6158969145180744 -1.8067582773496316 139 105 31
-3.2050708520454703 0.3155944654728588 -1.970393164438759 144 126 52
-5.009706149588844 1.5739886054230694 -2.5482824050139934 90 90 88
-3.2308418510446653 1.0456932750987946 -2.044023503432459 144 151 157
-3.571563443763146 0.5997672017278822 -1.845894842473013 107 61 5
-2.7821028222236825 0.7357905912181593 -1.950659820554093 84 82 85
-2.862326265622339 0.1461659062065993 -2.052752206548322 135 143 154
-3.138989952207955 0.29718343430263305 -2.010509094882145 137 107 20
-4.080205508269448 -1.774282789412117 -2.7123777451313034 89 88 86
-4.059776919302381 0.4809654915232386 -2.3933989783113114 153 154 156
-2.3330343475795994 0.3880819444636243 -1.8501443649223897 86 75 73
-3.2809176828408413 0.21192373342327142 -1.8604641277911549 80 36 5
-4.862170079835027 1.6776137309280732 -2.5039978684412714 125 126 128
-2.865263098364814 0.3090128929244365 -2.036092353585249 86 82 81
-3.741886784561778 0.15511928397334165 -2.3444902070781617 111 102 103
-2.711035952033438 -0.023318016936411088 -2.0185359451854556 66 60 56
-3.595139189418633 1.0030315107896233 -2.1720495883288713 82 67 57
-3.0840580584365807 0.7178213304846365 -2.0433634055312804 109 108 104
-4.143281388111189 -0.33255979749743503 -2.5355532843717072 55 45 43
-2.7494012629990734 -0.8138769027734225 -2.146460046564733 126 129 134
-2.9961087034145426 0.44844937771768634 -2.057707218103347 139 140 144
-3.6504726031068544 0.6968127821771976 -2.229618374489101 137 135 138
-3.8356304376406496 -0.17142702475241509 -2.412219404020394 133 131 133
-3.148360902730378 -0.6281748741868886 -2.246665586127416 94 90 81
-3.321409303164955 -0.321731877743538 -2.273411881886871 107 108 107
-3.485072491795648 -0.9360633179183055 -2.396361753072633 136 140 144
-3.6266381879020426 0.5144104555004823 -1.8042002311789875 121 69 10
-4.723419398196214 -0.680418401185533 -2.767505821384643 141 140 142
-3.6731173918012274 -0.7955465414256305 -2.441037242373822 127 132 128
-3.30041633717985 -0.36375293138432024 -1.7823202034128185 157 123 25
-2.509020631781026 0.2382909831669655 -1.918159543294635 78 77 75
-3.3103208863344977 0.27175748676696365 -1.8687618596845235 116 76 8
-3.3026493950878155 0.43847394173233284 -1.9505758408562521 129 85 35
-2.7608165318484508 0.06850482993263553 -2.032964397131311 104 102 102
-2.828911249810899 -0.08243426499022419 -2.0699595702272835 84 82 80
-3.8543455479703543 -1.3793852737863221 -2.582936179868671 139 140 144
-2.7468444628635744 -0.1667775267946066 -2.0556726178981797 139 152 168
-2.6938413891068436 -0.46236412855025794 -2.0818045223235795 94 87 84
-3.354813132958447 0.4334269833350803 -1.9389042907422447 159 138 65
-3.0434024706328024 1.2260817363680405 -1.9480241028247423 140 141 143
-3.5832618779082717 1.4206086104427984 -2.103885279233946 116 117 119
-4.164364967159295 0.19571283521026683 -2.468213448278496 149 149 157
-4.647066099705599 -1.0715279139232736 -2.783520562594712 86 85 91
-4.602649977301658 0.6907370162434371 -2.536333273619909 139 143 146
-3.594566346847886 0.24371760545605023 -1.871163509099891 143 116 30
-2.7374409849752843 1.0986985355309133 -1.879009220736855 87 79 69
-3.511954754769467 -0.47713465868230986 -2.3570519792037357 97 85 84
-3.0554736397027242 1.8092566489521984 -1.8831606170062956 65 57 54
-4.330845610981182 -0.236359222860386 -2.5759164701320483 89 88 84
-2.8324234835434545 -0.6519629602153457 -2.1504272301767573 119 120 122
-3.1599201636091045 -0.43471177041261516 -2.23690290308783 101 98 93
-3.873547873326268 -0.750610899374143 -2.4904108302413124 102 95 88
-2.8364014037755885 0.03763247327146627 -2.056845291366363 138 139 144
-2.8694410082524064 0.2719580263258888 -2.0432829047881844 131 134 135
-2.501263752666634 0.09356230311381966 -1.9448735236943482 151 154 159
-3.3084417281527156 -0.9068333489027323 -2.3430354283458485 137 142 144
-4.395018114799676 -0.37450990261663863 -2.610773574242326 144 142 143
-3.521666549971782 0.17887195243761791 -1.9002478893323462 120 77 0
-4.107698870352858 -0.0861020939925568 -2.4778835827481362 157 157 157
-3.672660428634396 -0.8961058846292648 -2.4543312723717152 142 154 165
-4.071065936692041 1.3349379765436673 -2.281271842775811 85 84 82
-3.574109677889021 0.5459868174596112 -1.8700101730655097 128 97 14
-3.091433787257016 1.2472815334087786 -1.9632452311996826 135 136 140
-3.179970157046796 -0.36185528959767554 -2.230162446507982 54 45 38
-3.76345960943734 -0.6748643012092062 -2.4516495449923505 140 144 150
-3.182313803789124 -0.5508873725205766 -2.250541854157738 77 72 69
-3.5604795419013517 0.48793791334035475 -1.8144582256671675 158 143 85
-4.455314149590326 -0.9744092946425967 -2.6811693300266266 112 107 101
-4.7104352825231 -0.791561626555119 -2.770929346575114 138 139 141
-3.7167407837386945 -0.0394734915974482 -2.352192430109854 36 28 23
-3.898458589940655 0.263032311554187 -2.3740737460469123 51 44 38
-3.880697028498143 1.057144486743036 -2.252434705704765 123 127 126
-3.4644794635030647 0.3418922183697082 -1.801049379661035 167 153 90
-3.5924769290117275 0.9339718502471944 -2.173563793654331 83 80 69
-4.638697216005938 -0.35091965860519175 -2.680531713728148 137 138 142
-3.787053071774191 1.1058299407501369 -2.2177936578771242 98 96 89
-4.347633468840594 0.01864066583765211 -2.549350534116305 137 135 136
-3.4623836056184993 0.8788961723451229 -2.147804067486893 54 39 25
-2.797742511099926 0.17821880039682447 -2.0282731707014383 134 142 144
-3.2668709333566963 0.15481946876114308 -1.8367127181959653 131 108 34
-3.1186870581239194 -0.36995900453090225 -2.203896815185042 96 95 92
-2.3521503381588036 0.6207869827368936 -1.8116535874543123 72 72 63
-3.8839433213833314 -1.0100696578651374 -2.5384123781460284 84 74 73
-4.484064308340771 -0.8559284220329686 -2.716076005886311 105 101 98
-3.6064405195205502 -0.8899203981613506 -2.434421776407046 68 59 52
-2.833441051201995 1.1810814514259491 -1.896105416766644 144 159 162
-3.533887176712155 -0.3678278293403138 -2.3315109429971423 109 99 87
-2.912314135455398 0.6010082453113375 -2.002782046619898 151 152 156
-4.110739497365814 -0.3269641204134519 -2.522767918198895 80 72 69
-3.1908149275570383 -0.6350185516194535 -2.2607265622350172 126 128 132
-4.246526556465679 -1.1707171591187846 -2.66975849380974 91 78 70
-4.356223092495679 1.0479291191408024 -2.404672936519561 149 154 158
-3.4877956012094584 1.0862518983801395 -2.1228998373153747 53 48 44
-3.1877374930448847 0.33719207194484 -1.9843549003420222 78 41 16
-2.7221325496529545 0.49083669293992577 -1.9614601027872178 130 135 139
-3.131795651129006 0.059019677813315845 -1.9729228673479766 139 114 33
-4.02768352454653 -0.6215877635010222 -2.529457103069577 111 106 103
-3.2537096404889563 -0.44304925444458 -2.2587027507610906 81 67 58
-2.9689396336418366 0.6582203579071072 -2.0224004075309434 136 150 163
-4.0681512988248105 0.12691653882529788 -2.4478977879360886 64 62 65
-3.961987402015349 -0.8896741332267023 -2.5325311858821418 104 102 103
-3.3056076421148983 0.7424091538428418 -2.120778108186025 132 134 138
-3.3503822274223567 0.31263175140749594 -1.8579728513948452 142 121 63
-3.979988649219075 -0.7422944122078454 -2.531828464848806 71 64 57
-3.5788408016239184 -0.8045423374521354 -2.4030269226493153 144 150 150
-2.6123147444579558 0.9242302107730131 -1.864363421270335 130 128 127
-3.163100618736609 -0.4727077453331535 -1.7355444551633281 24 19 16
-4.804957611980401 -1.2734508943299927 -2.86149497606995 105 108 114
-3.7451505932663713 0.8374203805945505 -2.2225860668102957 157 166 174
-2.9543823280207464 -0.30942973960567144 -2.1468905521007287 114 115 117
-3.2257259000128125 -0.359343954985933 -2.240089676146649 46 32 19
-3.5838875281991407 -0.5425203533359294 -2.3807535527682937 58 54 43
-4.306549969794038 -0.633222110359604 -2.625035595419016 128 124 123
-3.514399164411676 0.7547723175314237 -2.180452627500438 87 74 65
-2.7332819056013187 0.995669202335789 -1.891862815657173 97 90 82
-3.3424591797442003 0.21988936197727665 -1.8202190405997523 141 125 63
-4.316966170345397 -0.9877515463682663 -2.674789252531843 89 79 77
-3.213624969262482 -0.09793291601505542 -1.769524767444504 151 130 52
-4.432839834771912 0.1484442379079222 -2.5472327803308086 142 141 147
-3.2202275389999255 0.8894696851357728 -2.0617372406833505 149 158 173
-4.032271409651752 -0.16541944689104415 -2.4672846760213942 105 96 89
-2.776957353356817 -0.0008202772494506712 -2.049108198059541 90 76 67
-2.744763716801676 0.9126958485096148 -1.9028126454888046 135 138 137
-3.6185700169514834 1.1025724617586914 -2.157235812271203 107 111 114
-4.061800821764731 1.0278271314067793 -2.319536043518992 78 69 59
-3.195889927999757 1.1514427000010203 -2.020753090157137 142 143 145
-2.8739237398595243 -0.7574799156324584 -2.181942922982685 107 106 102
-3.227067217991487 0.14974362079981315 -1.9040730572514963 73 31 1
-2.866825329043977 -0.14062269525075152 -2.097415387620806 46 25 22
-3.224556095809992 0.09498532328816119 -1.8468281707937995 97 49 2
-2.5750684983686547 -0.055554152888317866 -1.9835804347351318 141 141 146
-3.4308384564339507 0.828864028275481 -2.1396575944647105 98 90 87
-2.792922845331035 0.09397975910818825 -2.0418759883745965 94 94 96
-4.088172027475176 0.03977749344393965 -2.4649970732868245 25 20 17
-3.4783240046563586 -0.025650318449151818 -1.8386078419994538 167 178 199
-4.276329891712351 0.4632461840724909 -2.4547125625413146 142 151 149
-4.0840647651239435 -0.3290505550581255 -2.520038179241698 87 85 86
-3.2914648528799337 0.43553463538861376 -1.9531924626352228 145 128 64
-3.1892996528019615 1.057507860358412 -2.0361456303401275 148 148 150
-4.602538199265165 0.03153348497223388 -2.6303208126594724 137 136 134
-3.6019794335045026 0.5548361267187366 -1.8452867322373037 134 104 18
-4.472663920226228 -0.3411959887375793 -2.6331072382846568 140 145 148
-3.651816724665451 1.1474444928210232 -2.1777367355275454 130 130 133
-4.848462730342522 -0.14772464245367725 -2.730486452053993 97 93 89
-4.043006227242151 0.605268708683618 -2.3608602522264834 125 125 129
-2.4749644947985514 -0.39370286633195617 -1.9953028109568365 135 142 148
-3.982536074803756 -1.0531026768162852 -2.5739303205151027 110 105 105
-2.691283515357959 -0.37711958837456677 -2.070170270447538 130 142 147
-2.8939398744206457 0.08569595320047495 -2.071052046087744 143 144 149
-3.4707554786471655 -0.4226916481861029 -2.328463827406915 44 39 32
-3.1043055102967507 0.09354277395603317 -2.1121684238258016 22 13 11
-3.8237561288913535 -0.46922986868261596 -2.450708919859189 35 17 4
-2.680541845635126 0.3436202127061733 -1.961566378081046 113 113 120
-3.9206755715212798 0.9868230840596836 -2.2810119567889524 39 27 23
-5.198937535379047 -0.3741704352573379 -2.8815369727709497 81 75 65
-5.010311955809279 1.365046520675342 -2.581820449736676 103 103 95
-2.7610061004152144 -0.5102787871102901 -2.107706388851571 126 129 132
-3.388747968055355 -0.1491726640991117 -2.2595561685566956 28 19 14
-4.764006615396847 0.20492158336270178 -2.656614179823981 145 144 148
-2.9068154702241076 -0.2989442637209884 -2.126099651970467 128 137 136
-3.5804327123166715 0.9123862554355529 -2.169656665791217 134 133 138
-5.167318626633486 0.9271188782549028 -2.6918064453292603 106 102 99
-4.037958531141941 -0.26024840850160846 -2.4843085235572238 139 141 145
-3.4168506142545905 0.5877864065819083 -1.9172966203988346 107 61 14
-3.0682415850739964 -0.5098106974933594 -2.2143771741686114 47 32 25
-4.727013295745888 1.1087383691449175 -2.518076283784467 84 79 72
-3.3228762299603796 0.3144889996025117 -1.9113647963573739 84 40 0
-3.630992524138352 1.3926542005041678 -2.1204172870440625 151 155 164
-2.929140662680537 0.2456576665693425 -2.0614231116612913 117 113 113
-3.3910299887111797 1.2058297254206107 -2.069327369602745 140 141 143
-2.9906532287808796 0.678575389119046 -2.022361816022314 153 154 158
-4.780670921833107 1.3979503490959622 -2.500918005876014 86 85 81
-3.061141252677033 0.7802826763801779 -2.034122241763851 78 73 70
-3.2162123960487454 1.0797284483228293 -2.0341149554140445 156 157 161
-3.029612925900286 -0.7219930747929569 -2.2196242673059703 67 59 50
-3.6150764590109756 0.6848551577435353 -1.8345002660438354 128 78 12
-4.42605127186921 0.9823367640121263 -2.4486536992162744 49 46 39
-3.455402513218078 1.1205753913054013 -2.1042458333546783 132 132 132
-3.709842898832111 -0.3318677637146883 -2.3856430214948157 85 81 77
-2.812919347304163 -0.1863892882976196 -2.074207681735587 138 138 145
-5.371366819612428 -0.925336737315821 -3.0144732898023556 73 72 68
-2.456368640494318 0.6217855787797094 -1.847422102801829 142 145 154
-3.239190055889794 -0.08070975670870634 -1.767459244008718 114 62 5
-3.895761117122922 0.6588536374035973 -2.311078713915368 88 81 78
-4.362967576138393 -0.6306039596193644 -2.6307912364143013 139 137 141
-4.565640774167878 -0.6954201889178808 -2.7138507906370424 142 143 147
-3.1089137318900684 0.9097056694357973 -2.022872298143023 137 141 147
-3.3341670400333316 -0.6557286980424479 -2.316029976796904 77 74 70
-3.1545148040062596 -0.37822227268889086 -2.219408429563801 85 87 76
-3.110406140594388 -0.5079531619032043 -2.221666093979814 63 58 53
-2.8464934104940416 -0.3973234668590297 -2.11676364806168 74 62 54
-4.093643347016936 -0.20625722078546754 -2.505015823502493 145 141 140
-2.925851783675694 0.7635152944452109 -1.9892776104010788 152 166 182
-4.348973338098513 1.425452111731102 -2.3574705035260957 104 103 102
-4.929137834231091 1.0722212708843808 -2.5905292218881324 111 107 101
-5.475155070169026 0.6606964228381722 -2.811004226386456 134 130 131
-3.8494248675030027 -0.23185403526102744 -2.417172145553716 147 143 144
-4.039863774873275 1.3667404924606879 -2.26526844834832 102 101 95
-3.3924489927732973 0.7660746104875317 -2.1349725677125044 89 78 72
-2.5773110733820084 0.04648438204061015 -1.971989591744817 140 138 141
-3.466178570283262 0.598792217754751 -1.8945916859081264 111 63 9
-3.360380969977511 0.500278226285459 -1.9373531726177493 156 137 68
-3.1881741321502552 -0.12605599317747837 -2.20248381806364 49 39 38
-3.2375544872298505 0.1338839912317843 -1.9620774159587255 68 38 0
-3.0311102406325614 0.5524297169729047 -2.0502316906034905 89 75 68
-3.2525368074439247 -0.016746778089061363 -1.7835193322836478 150 127 48
-2.878352988670613 0.06877067457011724 -2.07227577459888 54 46 40
-3.2794747501411945 0.3603424748807887 -1.9535010936126003 111 64 11
-3.0132603638484867 0.3048392052849865 -2.0790580424869787 148 149 151
-3.6224760784377783 -0.6252001234884675 -2.4072160686213344 37 27 26
-4.215144057640997 1.153617565649828 -2.346672342358634 97 92 90
-2.9118560324622833 -0.9597425535319493 -2.2285999418681164 127 131 134
-4.205257128273258 0.18873222439050286 -2.47553453668054 150 150 152
-2.7575605599498343 0.19658726676922042 -2.012296386222119 74 63 57
-3.7143083751550954 -0.1383900235704274 -2.361795484401375 162 166 169
-3.0141163410234197 -0.2780987391186203 -2.156452020355935 107 107 107
-2.8259993564603483 -0.6599949690581793 -2.153500397042576 58 54 51
-3.530642640944307 -0.21071666749819348 -2.3117892214815416 130 124 123
-3.0919762140704297 -0.8897844064175178 -2.25984197290919 125 124 129
-3.1634613364463857 -0.08767970843097884 -1.8075696620938726 142 111 32
-3.1900726587620394 -0.20797582022818295 -1.741656136476064 142 127 45
-2.474964494787366 -0.3937028663293475 -1.9953028109652933 135 142 148
-3.513143370057847 0.7916814268147576 -2.1680044516224997 80 69 67
-3.67416959899458 -0.00063305680535536 -2.3324478134924664 145 142 139
-3.088572302953175 0.6622350518312116 -2.060987085103131 146 156 159
-4.854207986129646 -0.37981553086192066 -2.773034380512599 138 136 139
-4.219316588013555 -0.43574065864140815 -2.5612799684736443 141 146 152
-2.7169848808997465 -0.3951843918417182 -2.076797480398625 135 140 147
-4.42967285463656 -0.2779053023207939 -2.6357815476765407 152 151 156
-2.7524372669783124 1.4355159504945392 -1.8275003568607093 150 153 158
-5.220150211333518 1.527641273243007 -2.6208778083835123 132 133 135
-4.599960115104512 -1.0594443440243733 -2.770946511585738 98 97 93
-3.1638950500209666 0.40196296139456933 -2.0979034028283468 57 53 50
-3.833896520625268 -0.670430168102211 -2.476069683862662 124 120 119
-4.057198476554788 1.036317775489193 -2.3184263047197264 133 135 144
-4.286862278253939 -0.22809121979293928 -2.563753272616603 59 46 30
-3.4730104722826227 0.5881527877814815 -1.8919843012998454 150 128 68
-3.356441463032269 -0.7611405708812242 -2.3312452315769074 145 148 157
-3.196349194610358 1.8553931835580602 -1.9062874435824178 87 83 80
-3.4458560686438418 0.894952070795898 -2.1382231988868123 80 71 63
-3.2284551562852397 0.0002647764133718809 -1.7987680078362969 153 128 51
-3.7338479743186754 -0.517496093532788 -2.4275163618636055 135 135 135
-2.9177049626611553 0.8186805136570755 -1.9771708159277832 140 140 142
-2.5006447000286425 -0.2212500190901466 -1.9821424345405148 143 150 158
-4.113555138868739 0.1425235937200589 -2.4531056235579998 137 138 137
-2.9263103426085775 0.8405033219668414 -1.9757042916221594 97 91 84
-4.021878596987839 1.2315541191439907 -2.278921599661822 146 156 166
-3.547557814619073 -0.29414136109561145 -2.328289266852592 87 67 52
-3.076504518725876 0.9324054502080165 -2.008304420651606 141 139 142
-2.7873382038251306 -0.3273549885187986 -2.08285732077012 138 141 146
-4.091863842937365 1.3308188136470698 -2.2808692188397957 139 140 144
-3.35260912147079 0.21095938207044415 -1.8129879127506845 97 48 20
-4.260201718260004 -0.3562604276919615 -2.5501875542971355 100 97 92
-3.6887360243345615 -0.14953345819944025 -2.3614341412637345 70 70 69
-2.8079336180590584 -0.6545560544456801 -2.1470315993759352 117 121 122
-2.7290296962096408 0.06093063656222032 -2.0216571664549363 104 97 96
-3.3954855370628234 -0.9180204273787783 -2.3703278954151723 128 128 130
-2.9342644718289916 -0.2841181510156397 -2.1366426477431206 75 62 53
-5.542850787088034 1.084635974807206 -2.781549165511134 131 131 131
-4.5147980778293215 -0.784202148035431 -2.7075327346337525 110 109 108
-3.629850559855931 1.7881516585248975 -2.0522498073316795 104 95 90
-3.520125391132763 0.25224988168199886 -1.8339411108759938 92 38 16
-3.2785331938827094 0.3380112215282399 -1.9553456769255428 164 143 81
-3.6089040805283874 -0.3823619469610059 -2.3637665799014895 60 51 42
-4.34373273045041 -0.306583952972355 -2.5949340181217377 129 133 137
-2.8376755288303146 -0.44847913175515053 -2.124217088058397 119 120 122
-2.716984880887072 -0.39518439183869203 -2.0767974804086253 135 140 147
-3.65214087991782 1.0756127083456424 -2.1813312829986278 65 61 57
-3.082349264076898 -0.2247455158029826 -2.1731247859445735 87 79 66
-6.430317305571527 -0.922558622577402 -3.3364505960848514 94 90 87
-3.394040412215984 -0.518635108904029 -2.3175352544921193 136 139 141
-3.617531519033545 -0.5277809831114224 -2.3907654582758306 81 76 72
-2.9015818455568683 -0.015535511445277126 -2.0898671427418556 133 131 131
-3.6868740123191013 -0.7291163396315145 -2.4363924586527075 73 69 67
-2.7035366349630285 0.18190871034847778 -2.0010162770849687 45 39 33
-3.73018870597874 0.22499982671694596 -2.3249640278349153 79 67 63
-3.9383820609725024 1.3600914330242881 -2.2197279987730454 104 106 105
-2.1507336969839046 -0.15076412407592904 -1.85994683903096 143 148 154
-2.8287681335422032 -0.10617636385688528 -2.0770124665159915 126 126 128
-4.643859375857056 -0.18240860779865226 -2.659287671728489 116 112 111
-3.307770609072895 0.9346820626599378 -2.0901298081576285 133 134 138
-3.2903361719372013 0.1503893193359526 -1.8201473425150778 135 117 54
-3.786734107976298 -0.2784816065711908 -2.40513409248554 45 33 23
-3.6251483068141357 1.013206420391221 -2.1718398157637333 73 71 72
-4.437749636624422 -0.3828673205657274 -2.6361010684451327 53 40 33
-3.7527656399635956 -0.2649991351290522 -2.3894536023511312 127 123 120
-3.1991081278287625 -0.25126581558501926 -1.7272795578535152 160 142 59
-2.9542591543544625 0.7749717884655277 -1.9976395322953262 85 71 60
-3.099408983156379 0.05784477227327508 -1.9959908705502918 136 100 17
-3.181484215668593 0.39901132183321225 -2.025789673660739 128 96 21
-3.7611854407733136 -0.3304793414425549 -2.408625125411214 142 152 151
-3.6783049116757045 0.11403237500927478 -2.319529199767178 127 124 119
-2.6224314317451576 0.6894598065917091 -1.8935870823202525 151 151 151
-2.9344451991988683 0.7829802218206201 -1.994782097947926 81 78 77
-3.3810141254618205 1.0114065409398088 -2.106459714648439 126 128 127
-4.2971297090394796 0.34375458568832884 -2.489535185073339 48 49 41
-3.8491963821232194 -0.7583218063597129 -2.4945189889775885 143 149 154
-4.531948279680207 0.09965468172665326 -2.5882633312145273 95 88 85
-3.7850422033744575 0.0367049733714891 -2.3570153205518705 105 87 79
-2.9589717824209676 0.08347719833930509 -2.099167189467232 131 130 135
-4.97801024407725 -1.2978701242062902 -2.932836068622922 145 144 150
-4.547375340720343 -0.4434522328409494 -2.6642453591121837 144 142 145
-3.7774990667673474 -0.3977147471546801 -2.41865518796969 140 144 144
-3.301554276077514 0.4549674104827289 -1.9542087957142744 158 139 71
-3.804265712668199 -0.09304833961969064 -2.3936700797977144 49 39 37
-3.9262395047812593 1.160550731155248 -2.2549612600685367 94 91 91
-3.3212215815312724 0.7420825232080214 -2.121808103915445 54 44 39
-4.169707127074975 -1.1618208632704365 -2.6487368241731484 134 131 132
-2.8174645150965456 0.48601158405796546 -1.9928486858300172 151 153 157
-3.6937779549187537 -0.9995826334919464 -2.4830517633668516 120 122 121
-3.5062240084818863 0.737304889195209 -2.176577612277416 136 136 134
-3.3374774461259866 -0.6709957010249816 -2.318174970857717 132 131 126
-4.774440360664435 1.179956353651806 -2.5318739011569673 101 98 93
-4.457343787597674 -1.1812407124366875 -2.7416674188447794 124 129 132
-3.3077576532740527 0.28345132424230396 -1.8699386235267317 135 109 35
-3.867489077907453 -0.7933861763373358 -2.508185118848672 80 72 75
-2.8357654110638526 -0.42284331508707546 -2.1187029684176073 72 57 48
-3.0193105637539888 0.6230899982930862 -2.0409905250219817 136 132 133
-2.7022693913105753 0.37624244666080986 -1.9732366174622462 150 158 160
-2.891374124696128 -0.3498215430336058 -2.126881528584799 123 124 128
-3.2706051150118753 0.3927199679895051 -1.95520275680361 149 130 64
-3.4774279449237535 -0.05579216726207551 -1.84014283346042 83 139 133
-3.2047867954056137 0.06458539532898193 -1.9585315532080694 61 27 0
-3.0302072536152758 0.3217299877300112 -2.0788739813898927 105 77 60
-5.537862976854765 -1.2920956352704873 -3.1153850115179664 128 128 127
-4.409034826621231 -0.3098664423129433 -2.6067671550503477 144 138 134
-2.677603022253006 0.5229695593830638 -1.9410391812355436 152 169 188
-4.69807032449549 0.030760312871195794 -2.656561499517164 140 142 145
-4.398765116739962 -0.30945141323950937 -2.603173420588954 143 144 148
-4.439489481484979 -0.46220797127498614 -2.642140978691153 86 78 68
-2.99909075495204 0.40341934109664673 -2.0578702190155522 108 108 108
-4.789608899405393 -0.24694570403675312 -2.7370032044874226 144 143 144
-3.3109444736131364 0.21673006325872693 -1.8348254458328774 151 131 73
-3.2218667373407563 1.1044881741616943 -2.0333276183267377 147 155 158
-2.6944676492119077 0.23476509696555084 -1.9836533403493934 93 89 88
-3.260276445511367 0.039090585692276636 -1.796810737598601 152 133 48
-3.2219348892743827 0.4117500861462466 -1.9750770486906506 150 133 54
-4.0457402600758 0.6185619492225377 -2.3627959796073883 57 52 49
-3.722409570621531 0.23470519014676475 -2.3165327330082555 72 57 49
-4.137623471231975 -0.704625871706638 -2.5715657935270357 76 67 62
-3.1285231500692006 0.2587888853328983 -2.011203094201379 98 52 0
-4.621108488495134 -1.4222932743251868 -2.8393711641450188 106 107 99
-3.219346321145886 1.7120099310567054 -1.9366421760956647 137 137 139
-3.114881304656874 -0.7604158057813339 -2.2626558523173537 121 121 123
-3.7284393297868816 1.13050837775731 -2.1994640138701267 38 38 32
-3.061907034861653 0.9148429208306357 -2.0118229696009933 58 51 45
-3.924737517742008 0.0996221844245597 -2.40404729683834 90 71 58
-4.393297108798666 -1.2094151174975953 -2.7186291732546457 91 89 84
-2.843823779913923 -1.0524040503430703 -2.19722497563992 126 135 146
-3.1792463722721545 1.0652346354627698 -2.0241738990386597 136 140 143
-3.066559758191279 0.4945633652054109 -2.0724106280591377 151 152 157
-3.3931471207963604 -0.3931095764974862 -1.796693766150554 132 92 5
-3.291585381216437 0.6040588951693929 -2.135506777415613 121 116 122
-3.0692293615757196 -0.247638582688272 -2.1724520012001753 104 100 97
-3.22299232992095 -0.10220347865756438 -1.7646968670158936 147 130 52
-4.233810599225651 -0.23082274513458612 -2.544121296360901 119 118 116
-2.951194886314389 0.1532967661059752 -2.0859364105237908 160 163 168
-4.462404221022258 -1.0026044175573043 -2.7147082512951495 138 140 145
-2.22580786221961 0.3930566456609201 -1.8159311049804396 151 160 171
-3.506437670727572 0.04106299692526456 -1.8366169444409444 117 153 156
-2.7409981648843003 0.49063340313630094 -1.9733521902488007 99 97 98
